VERSION .7
FIELDS x y z velocity intensity
SIZE 4 4 4 4 4
TYPE F F F F F
COUNT 1 1 1 1 1
WIDTH 981
HEIGHT 1
VIEWPOINT 0 0 0 1 0 0 0
POINTS 981
DATA ascii
-10.840600 2.392440 22.391300 -5.150400 5.100000
3.463210 1.218250 25.156600 -5.683200 6.230000
2.722330 1.969480 26.069300 -5.683200 17.880000
2.603990 2.034050 26.944900 -5.683200 6.520000
2.853530 2.385130 27.325700 -5.683200 17.630000
2.898690 2.357670 27.758200 -5.683200 15.210000
-20.298600 2.130910 19.804700 -3.907200 7.070000
2.563690 2.284370 28.231300 -5.683200 17.790000
2.563690 2.284370 28.231300 -5.683200 15.710000
2.641860 2.285840 29.092200 -5.683200 6.670000
-20.262500 1.769050 21.686400 -4.173600 13.300000
2.479640 1.041920 29.177500 -5.683200 8.030000
2.287850 1.057240 29.625100 -5.683200 18.170000
-21.229700 1.914770 21.945900 -4.084800 19.800000
3.519190 2.292350 30.304200 -5.683200 17.360000
3.568750 2.324630 30.731100 -5.683200 5.970000
4.635710 2.453920 31.015300 -5.683200 15.040000
-17.386000 -0.656618 26.206100 -4.617600 13.710000
4.091820 2.561260 31.519100 -5.683200 4.940000
6.047850 2.521150 31.646300 -5.683200 13.800000
6.127350 2.630490 32.062300 -5.594400 11.820000
19.600200 0.000000 26.235300 -4.706400 9.590000
2.546470 2.665100 32.973900 -5.683200 8.590000
19.857800 0.179574 26.580100 -4.706400 8.960000
2.554450 -0.487401 33.077200 -5.683200 8.640000
2.587730 -0.389793 33.508200 -5.683200 9.170000
-18.144600 -1.315670 28.772200 -4.795200 11.770000
2.615420 2.235580 33.866800 -5.683200 11.970000
-18.374300 -1.332320 29.136400 -4.795200 14.520000
9.286750 1.968950 33.587100 -5.594400 10.200000
7.001000 2.076710 34.130400 -5.683200 8.380000
7.087440 2.102350 34.551800 -5.594400 8.930000
9.152940 2.488770 34.930700 -5.594400 6.780000
-18.784600 2.600430 30.830200 -4.884000 6.780000
-11.165100 1.953080 34.828500 -5.416800 9.240000
-18.037500 2.631390 31.768300 -4.972800 7.930000
-20.196000 2.631390 30.441700 -4.706400 8.450000
5.470810 1.890220 36.602600 -5.683200 7.260000
-11.501300 1.890220 35.176700 -5.416800 8.630000
-18.032400 -1.546760 32.337200 -4.972800 7.610000
-20.195600 2.662350 30.956400 -4.795200 7.980000
11.429200 1.912200 35.652400 -5.505600 6.490000
-18.242000 -1.564750 32.713200 -4.972800 6.010000
-19.701000 2.693300 31.780300 -4.795200 8.210000
22.147200 -2.090940 32.290900 -4.795200 7.070000
22.641500 -2.113920 32.472200 -4.795200 5.950000
26.353000 -0.348152 31.322700 -4.528800 8.340000
26.630400 -0.351817 31.652400 -4.528800 12.190000
26.907800 -0.355481 31.982100 -4.528800 9.470000
27.185200 -0.359146 32.311900 -4.528800 6.640000
21.601400 2.274760 36.715200 -5.061600 5.100000
21.822200 2.197930 37.090500 -5.061600 8.790000
-26.276900 2.430800 34.064100 -4.440000 11.860000
22.325800 2.320720 37.285900 -5.061600 13.350000
-26.539700 2.455110 34.404800 -4.440000 10.410000
6.496860 -0.373805 43.467400 -5.683200 6.790000
-27.131000 2.615120 34.479400 -4.528800 8.200000
8.582640 -0.377470 43.543300 -5.594400 5.610000
-26.242100 2.640760 35.696000 -4.617600 4.870000
8.917990 -0.377470 43.475900 -5.683200 7.790000
9.004570 -0.381135 43.898000 -5.683200 6.680000
9.177740 -0.388464 44.742200 -5.683200 4.070000
-12.056000 -0.107945 44.948300 -5.505600 5.760000
-12.516900 -0.108944 45.269400 -5.505600 14.930000
-12.895600 0.000000 45.611100 -5.505600 15.080000
-13.367200 0.110943 45.923900 -5.416800 11.170000
-13.130100 0.111943 46.440200 -5.416800 4.720000
20.658000 2.871510 43.521300 -5.239200 8.000000
20.842400 2.897140 43.909900 -5.239200 10.380000
-7.101420 2.659490 51.584500 -7.015200 9.740000
-7.101420 2.659490 51.584500 -7.015200 7.210000
-8.160890 2.681470 51.863200 -7.015200 6.660000
-7.278610 2.560380 52.871600 -5.505600 6.080000
-8.227780 2.703450 52.288300 -7.015200 5.680000
-26.426100 2.607800 51.757000 -7.281600 5.630000
-27.426100 2.446040 51.730700 -7.370400 5.610000
-28.718000 2.828810 51.499600 -7.281600 8.430000
-29.322100 3.033140 51.643100 -7.281600 7.450000
-29.539100 2.870100 52.025300 -7.281600 6.080000
-23.134600 3.494700 64.394300 -5.328000 6.830000
-23.280100 3.516680 64.799300 -5.328000 12.390000
-2.719900 3.167990 70.544100 -5.328000 11.030000
-2.736480 3.187310 70.974300 -5.328000 7.050000
-2.752670 3.427610 71.394200 -5.328000 7.950000
-3.183900 3.670540 71.796100 -5.239200 6.850000
-5.180570 3.714490 72.542600 -5.505600 4.460000
-5.212770 3.283890 72.993500 -5.505600 5.880000
-5.244140 3.075540 73.432700 -5.505600 10.140000
-26.445600 1.993130 78.821700 -5.416800 13.110000
-26.582600 2.003450 79.230100 -5.416800 12.290000
-26.719600 2.013780 79.638500 -5.416800 12.670000
42.473900 1.509480 73.481600 -5.061600 7.870000
41.177500 1.524810 75.199700 -5.150400 7.100000
41.386500 1.265980 75.581400 -5.150400 10.680000
42.177600 1.272310 75.636500 -5.061600 7.190000
43.554100 1.278640 75.350400 -5.061600 5.260000
42.590800 0.485084 78.859500 -5.150400 7.910000
43.252900 0.487416 78.989900 -5.150400 7.470000
43.459900 0.489748 79.367900 -5.150400 5.130000
42.788200 0.776928 80.706500 -5.150400 6.300000
26.836800 0.000000 87.770500 -5.505600 6.370000
27.472100 0.000000 88.025300 -5.505600 6.550000
27.600400 -0.214890 88.436400 -5.505600 4.860000
38.120000 -0.215890 84.909700 -5.328000 5.290000
29.058200 -0.506073 88.874100 -5.505600 10.250000
38.292500 1.373580 85.293800 -5.328000 8.100000
43.355100 1.379910 83.321300 -5.239200 7.190000
34.964200 1.094420 87.643900 -5.416800 6.210000
35.123900 1.099420 88.044100 -5.416800 6.710000
35.283600 1.104410 88.444300 -5.416800 9.060000
23.099100 -1.114410 93.266400 -5.594400 7.270000
41.131600 -5.717370 86.654100 -5.239200 8.520000
23.202600 -1.119400 93.684600 -5.594400 10.110000
41.291400 -6.636710 86.990800 -5.239200 10.050000
6.375660 -3.570100 100.133000 -5.683200 6.430000
5.821610 -3.585420 100.599000 -5.683200 6.410000
3.120000 -2.974720 101.170000 -5.683200 6.270000
3.916250 -2.987380 101.573000 -5.683200 6.300000
37.108300 -0.236879 95.142500 -5.416800 4.970000
3.142900 -5.761000 101.912000 -5.772000 6.490000
37.019200 0.879541 96.559200 -5.416800 9.750000
-23.248600 1.930910 106.051000 -5.594400 4.510000
-23.342000 1.601460 106.477000 -5.594400 5.220000
-23.434300 1.607790 106.898000 -5.594400 8.350000
31.067600 1.289310 106.735000 -5.505600 13.770000
31.188000 1.294310 107.149000 -5.505600 8.790000
31.310100 0.606355 107.568000 -5.505600 5.480000
31.430500 0.608687 107.982000 -5.505600 6.000000
-51.879600 -3.999120 99.703900 -5.061600 10.170000
26.294800 0.611019 109.789000 -5.594400 8.980000
-52.835500 -4.712230 99.657700 -5.061600 6.820000
26.394600 0.963831 110.206000 -5.594400 5.930000
25.847100 2.990130 110.742000 -5.594400 8.720000
25.948300 2.383610 111.176000 -5.594400 12.810000
-50.522700 3.707460 102.336000 -5.061600 12.040000
26.050100 1.329290 111.612000 -5.594400 6.390000
-52.884100 3.367130 101.634000 -4.972800 12.250000
26.148900 0.978490 112.035000 -5.594400 9.360000
-50.112600 3.379790 103.508000 -5.061600 9.210000
26.246800 0.982155 112.455000 -5.594400 9.360000
-50.300300 3.392450 103.896000 -5.061600 12.100000
25.472200 1.702740 113.066000 -5.594400 10.690000
-49.689900 2.777990 104.684000 -5.150400 12.390000
-56.436500 2.777990 101.207000 -4.972800 10.450000
25.564100 2.428590 113.474000 -5.594400 16.620000
-56.646300 2.788310 101.583000 -4.972800 11.440000
-48.635700 2.437580 106.136000 -5.150400 11.660000
25.756300 1.721730 114.327000 -5.594400 13.860000
-44.047800 2.446580 108.585000 -5.239200 10.830000
25.851000 1.728060 114.747000 -5.594400 10.830000
-59.645800 1.728060 101.378000 -4.884000 7.930000
25.945700 1.734390 115.167000 -5.594400 8.000000
26.040300 1.740720 115.588000 -5.594400 14.850000
25.465800 1.011470 116.166000 -5.594400 5.840000
-46.382700 3.126050 109.466000 -5.239200 14.520000
25.558100 1.015140 116.586000 -5.594400 14.800000
-44.211900 3.137370 110.825000 -5.239200 5.800000
25.650400 1.018800 117.007000 -5.594400 5.180000
-44.371500 3.148700 111.225000 -5.239200 16.830000
25.742600 1.022470 117.428000 -5.594400 11.810000
-43.669400 3.160030 111.965000 -5.239200 10.680000
25.834900 1.026130 117.849000 -5.594400 9.970000
-52.557000 3.171350 108.557000 -5.061600 6.900000
25.927700 -0.655330 118.273000 -5.594400 12.860000
-45.499400 3.182680 112.164000 -5.239200 11.440000
25.104400 -0.657662 118.890000 -5.594400 6.610000
-45.661400 3.194010 112.563000 -5.239200 9.830000
-64.005400 2.912240 103.249000 -4.795200 15.100000
25.192100 -1.414250 119.306000 -5.594400 7.710000
-45.829100 2.545520 112.977000 -5.239200 13.960000
-64.236800 2.545520 103.623000 -4.795200 8.950000
-45.334900 2.554510 113.640000 -5.239200 8.430000
-63.646800 3.594980 104.460000 -4.795200 13.480000
-45.494600 2.563510 114.040000 -5.239200 11.070000
-64.682500 3.227980 104.342000 -4.795200 13.610000
-44.767700 2.953550 114.781000 -5.239200 8.770000
34.560800 -1.051780 118.736000 -5.594400 8.240000
-44.257700 2.963870 115.440000 -5.328000 12.550000
33.072100 -0.287853 119.611000 -5.594400 9.210000
-45.083900 2.590490 115.591000 -5.239200 6.440000
-45.710100 2.626470 117.197000 -5.239200 10.470000
-45.863400 3.025840 117.590000 -5.239200 8.630000
-46.019900 3.036160 117.991000 -5.239200 7.140000
5.287380 1.033020 4.963520 -4.084800 0.990000
5.196630 1.117530 5.648440 -4.262400 3.540000
5.134510 0.834125 6.322160 -4.528800 6.660000
5.671000 0.708086 5.862330 -4.173600 4.340000
5.301520 0.878026 6.737420 -4.528800 6.800000
5.969480 0.745354 6.170880 -4.173600 7.020000
5.793440 0.949763 6.885970 -4.440000 4.520000
6.154650 0.782622 6.587140 -4.173600 6.020000
4.944850 1.336850 7.976710 -4.795200 4.170000
6.069310 0.994990 7.213880 -4.440000 1.830000
5.174070 1.336900 8.346480 -4.884000 5.150000
5.465990 1.395020 8.667500 -4.884000 5.720000
5.119880 1.552120 9.350110 -5.061600 7.790000
0.064027 1.682750 11.076100 -5.594400 1.400000
5.279610 1.442580 9.775520 -5.061600 8.030000
0.066489 1.747470 11.502100 -5.594400 5.890000
5.171200 1.426670 10.323800 -5.150400 6.400000
0.068952 1.812190 11.928100 -5.594400 5.810000
5.221730 1.405420 10.785500 -5.150400 6.980000
5.323400 1.426820 11.215100 -5.150400 4.540000
5.089870 1.360940 12.275000 -5.239200 4.970000
5.160930 1.277510 12.722600 -5.328000 4.340000
5.811340 0.933851 12.944300 -5.239200 4.810000
5.778690 1.052560 13.421600 -5.328000 6.000000
6.049110 1.269520 13.756800 -5.239200 5.830000
5.113970 1.305790 14.586900 -5.416800 6.760000
5.375390 1.194600 14.962200 -5.416800 6.920000
13.523300 1.291460 10.608200 -3.640800 5.460000
5.330210 1.703010 16.302400 -5.416800 6.120000
13.627800 1.323750 11.164700 -3.640800 4.120000
5.465120 1.691210 16.715000 -5.416800 8.100000
5.371520 1.565240 17.211300 -5.416800 6.020000
-10.824800 0.643536 14.489300 -4.528800 13.010000
-11.083800 0.601588 14.835800 -4.528800 17.400000
-11.341500 0.615578 15.180800 -4.528800 17.130000
-11.599300 0.629569 15.525800 -4.528800 12.240000
-10.638100 1.579920 17.160700 -4.706400 8.550000
-10.864400 1.613540 17.525800 -4.706400 5.850000
-12.047000 1.741050 16.722200 -4.528800 7.280000
-10.506200 2.103700 19.186800 -4.972800 8.700000
-10.295200 2.144950 19.785700 -4.972800 8.430000
-10.496300 2.115880 20.172100 -4.972800 8.250000
-10.849200 2.227450 20.463600 -4.972800 3.410000
-10.639200 2.161330 21.550200 -5.061600 7.860000
-10.829200 2.199930 21.935100 -5.061600 9.740000
2.589590 1.718430 24.798200 -5.594400 4.360000
-11.019200 2.238520 22.319900 -5.061600 10.410000
2.634790 1.669610 25.231000 -5.594400 7.560000
2.679980 1.618120 25.663800 -5.594400 6.890000
3.022250 2.111310 26.025100 -5.594400 17.210000
2.408310 2.145920 26.520400 -5.594400 14.010000
2.447160 2.180540 26.948100 -5.594400 6.170000
2.327710 2.215150 27.389800 -5.594400 8.160000
3.218760 2.422400 27.717300 -5.594400 16.480000
2.399690 2.393940 28.236700 -5.594400 12.180000
2.436050 2.430210 28.664500 -5.594400 15.560000
-19.803600 1.743410 21.525300 -3.996000 17.900000
2.472410 2.466490 29.092300 -5.594400 6.300000
-20.272100 1.516570 21.696600 -3.996000 16.980000
2.517430 0.436762 29.622100 -5.683200 6.400000
4.673430 2.422820 29.700100 -5.594400 8.730000
-19.564800 1.701560 22.893900 -4.173600 8.940000
3.163870 2.834480 30.297600 -5.594400 8.080000
-20.067100 1.725870 23.028700 -4.173600 8.870000
3.387870 2.683270 30.722300 -5.594400 6.020000
3.614920 2.720540 31.128600 -5.594400 13.280000
7.820550 2.487530 30.812400 -5.505600 11.370000
4.147880 2.521150 31.950900 -5.594400 8.470000
4.452600 2.554770 32.343600 -5.594400 9.880000
19.599900 0.177242 26.234900 -4.617600 9.410000
2.809510 -0.282186 33.058900 -5.683200 11.380000
19.858100 0.076961 26.580400 -4.617600 10.340000
2.846060 -0.181906 33.489000 -5.683200 14.630000
20.116000 0.000000 26.925700 -4.617600 13.310000
2.882580 -0.078960 33.918700 -5.683200 13.420000
-17.035100 -0.184239 29.471500 -4.795200 12.270000
17.936100 -0.186571 29.437700 -4.884000 9.890000
9.589070 10.092500 32.944000 -5.505600 7.630000
-19.251300 2.790070 30.011900 -4.706400 8.920000
-22.049000 2.790070 28.020900 -4.351200 9.120000
10.543900 3.130490 34.484000 -5.416800 5.990000
-19.483300 2.823690 30.373500 -4.706400 6.940000
-21.819500 2.823690 28.741200 -4.440000 14.140000
10.897600 1.868240 34.917800 -5.416800 7.840000
-19.719900 2.744360 30.742400 -4.706400 7.910000
-11.501300 1.890220 35.176700 -5.328000 14.520000
-19.951900 2.776650 31.104100 -4.706400 8.200000
-10.184800 1.999030 36.022900 -5.416800 10.530000
-18.244300 -1.448900 32.717300 -4.884000 7.000000
5.168680 1.231160 37.545100 -5.594400 7.520000
5.446820 1.245150 37.940900 -5.594400 4.930000
5.506810 1.498860 38.358800 -5.594400 7.410000
21.611600 -3.059000 32.575400 -4.884000 5.950000
21.594600 -3.092610 33.100800 -4.884000 5.280000
25.526500 -0.613998 33.091300 -4.528800 8.080000
21.883700 2.274760 36.547600 -4.972800 5.680000
21.819600 2.297740 37.086100 -4.972800 7.520000
-26.269000 2.589480 34.602100 -4.440000 8.800000
6.245300 -0.509729 43.502800 -5.594400 5.760000
8.582370 -0.514726 43.542000 -5.594400 6.990000
-26.242100 2.640760 35.696000 -4.528800 10.630000
8.411420 -0.519724 44.014000 -5.594400 5.140000
8.492560 -0.384799 44.438600 -5.594400 13.620000
8.573440 -0.388464 44.861900 -5.594400 12.690000
-13.263100 0.539713 44.603900 -5.416800 5.570000
-13.386600 0.254203 45.019300 -5.416800 12.230000
-13.509400 0.256535 45.432300 -5.416800 15.630000
-13.631900 0.406788 45.844300 -5.416800 15.400000
19.063100 2.312600 44.275900 -5.239200 11.360000
-6.647430 2.757290 51.204800 -6.837600 4.740000
-6.704660 2.498440 51.645600 -7.370400 8.830000
-6.703640 2.659490 51.637700 -7.192800 5.740000
-6.702820 2.780260 51.631500 -6.837600 6.550000
-6.759040 2.681470 52.064500 -7.192800 13.720000
-6.813610 2.826220 52.484900 -7.192800 7.810000
-2.772510 3.509020 53.244100 -5.416800 14.540000
-2.794870 3.537320 53.673500 -5.416800 5.440000
-2.818330 3.230440 54.123900 -5.416800 12.150000
-3.147120 2.967630 70.966800 -5.239200 6.210000
-2.753440 2.985610 71.414000 -5.239200 5.420000
-4.898040 2.742690 76.926500 -5.594400 6.830000
-5.520830 2.997730 77.307200 -5.594400 6.200000
-5.551500 3.014380 77.736600 -5.594400 5.280000
36.793800 -15.059600 72.062600 -5.150400 5.050000
36.986500 -15.138500 72.439900 -5.150400 4.650000
-25.839100 1.735990 79.028700 -5.328000 6.280000
-25.974500 1.486500 79.442900 -5.328000 7.700000
39.156100 0.452434 73.855600 -5.061600 5.270000
-26.109700 1.234330 79.856400 -5.328000 6.990000
39.357900 0.454766 74.236300 -5.061600 9.600000
42.263400 0.718292 73.117500 -4.972800 10.790000
41.429000 22.347100 71.673900 -5.061600 9.680000
40.951800 0.732951 75.824800 -5.061600 7.840000
41.595100 1.004470 75.962400 -5.061600 9.000000
41.356300 1.547800 76.573700 -5.150400 10.210000
42.969900 1.547800 75.680000 -4.972800 9.520000
47.227800 0.473423 73.626000 -4.884000 11.320000
49.400100 0.000000 73.229900 -4.795200 6.370000
49.641100 0.000000 73.587100 -4.795200 6.610000
42.589900 0.762269 78.857800 -5.061600 7.270000
42.795600 0.487416 79.238600 -5.061600 5.340000
42.999400 0.769599 79.616100 -5.061600 5.050000
43.204200 0.773263 79.995200 -5.061600 6.560000
27.343700 0.212891 87.613700 -5.416800 6.870000
27.472000 0.213891 88.025000 -5.416800 7.300000
27.600400 0.214890 88.436400 -5.416800 9.810000
38.118800 0.791587 84.906900 -5.239200 4.750000
38.294100 1.084420 85.297300 -5.239200 11.610000
-48.866100 1.960860 80.201400 -4.795200 8.750000
16.460800 -1.094420 92.913900 -5.594400 5.740000
-49.090200 1.969850 80.569300 -4.795200 7.950000
16.536000 -1.099420 93.338200 -5.594400 8.420000
33.639600 -6.014000 89.808900 -5.328000 8.490000
35.004100 -6.040970 89.747600 -5.328000 7.590000
34.638700 -6.067940 90.350000 -5.328000 7.830000
37.676800 -1.493850 94.443500 -5.328000 8.210000
38.384100 -1.500180 94.623400 -5.328000 9.250000
39.281500 0.000000 94.732900 -5.328000 7.870000
-22.432600 1.259330 106.237000 -5.505600 8.840000
-22.522800 0.590030 106.664000 -5.505600 8.190000
-22.612100 0.253870 107.087000 -5.505600 5.940000
31.066400 1.633110 106.731000 -5.505600 6.380000
31.186800 1.639440 107.145000 -5.505600 8.980000
22.511400 0.952837 109.745000 -5.505600 6.260000
27.036100 0.956501 109.163000 -5.505600 7.270000
27.139600 0.960166 109.581000 -5.505600 9.470000
27.243200 0.963831 109.999000 -5.505600 8.490000
-48.546700 -5.080370 102.276000 -4.972800 10.960000
27.343500 2.022860 110.404000 -5.505600 12.560000
-49.553800 2.990130 102.354000 -4.972800 14.680000
27.443500 2.736680 110.808000 -5.505600 15.160000
-52.689800 3.001460 101.261000 -4.972800 11.550000
26.692500 2.038190 111.449000 -5.505600 6.960000
-52.888600 3.012780 101.643000 -4.972800 14.740000
26.795200 1.334290 111.879000 -5.505600 7.710000
-53.087400 3.024110 102.025000 -4.972800 15.600000
26.893100 2.053510 112.287000 -5.505600 10.350000
-47.280900 3.035440 105.315000 -5.061600 16.490000
-54.077100 2.767660 102.000000 -4.884000 14.080000
26.993500 2.061170 112.706000 -5.505600 16.940000
-48.276800 2.419590 105.352000 -5.061600 13.260000
-55.654800 2.777990 101.639000 -4.884000 13.060000
27.093800 2.068840 113.125000 -5.505600 9.510000
-56.646300 2.788310 101.583000 -4.884000 9.820000
27.194200 2.076500 113.544000 -5.505600 13.160000
-47.816200 2.437580 106.507000 -5.061600 8.480000
-57.640300 2.798640 101.518000 -4.795200 9.340000
26.636700 1.721730 114.125000 -5.505600 16.070000
-57.853000 2.808970 101.893000 -4.795200 8.090000
26.734600 1.728060 114.544000 -5.505600 15.230000
26.832500 1.734390 114.964000 -5.505600 7.510000
26.930400 1.740720 115.384000 -5.505600 6.570000
-62.416600 2.839950 100.686000 -4.795200 5.740000
25.464000 1.747050 116.157000 -5.594400 16.520000
-61.078500 2.850280 102.006000 -4.795200 8.770000
27.127400 1.384260 116.227000 -5.505600 9.350000
-43.356400 3.137370 111.162000 -5.150400 4.890000
-61.296200 3.137370 102.370000 -4.795200 9.940000
27.226800 0.648333 116.653000 -5.505600 11.440000
-44.371500 3.148700 111.225000 -5.239200 10.050000
-61.517500 3.148700 102.739000 -4.795200 11.890000
25.743500 0.278858 117.432000 -5.594400 11.790000
-44.531100 3.160030 111.625000 -5.239200 9.900000
26.516600 0.279857 117.702000 -5.505600 7.510000
-45.340200 2.891580 111.771000 -5.150400 14.980000
25.924000 -2.153120 118.256000 -5.505600 5.030000
-45.505200 2.527530 112.178000 -5.150400 9.440000
26.020300 -0.281856 118.695000 -5.505600 13.950000
-45.012500 2.912240 112.832000 -5.150400 9.860000
26.800700 -0.282856 118.963000 -5.505600 11.720000
-45.172200 2.922560 113.232000 -5.150400 9.700000
-63.431800 2.922560 104.108000 -4.706400 12.550000
-45.334900 2.554510 113.640000 -5.239200 10.940000
-63.656000 2.932890 104.475000 -4.706400 12.710000
-45.494600 2.563510 114.040000 -5.239200 7.690000
-63.880100 2.943220 104.843000 -4.706400 13.050000
-45.654200 2.572500 114.440000 -5.239200 14.080000
-44.921600 3.250640 115.175000 -5.239200 12.010000
-45.069900 4.029240 115.556000 -5.239200 6.500000
-44.555400 4.043230 116.216000 -5.239200 5.340000
-35.606100 2.994850 119.743000 -5.328000 8.160000
-45.547700 3.295940 116.780000 -5.239200 6.850000
-45.706900 3.015510 117.189000 -5.239200 10.220000
-45.863400 3.025840 117.590000 -5.239200 5.560000
-46.019900 3.036160 117.991000 -5.239200 8.720000
-46.184800 1.867310 118.414000 -5.239200 6.950000
-45.657000 1.084770 119.090000 -5.239200 7.370000
-45.811300 1.088430 119.492000 -5.239200 13.070000
5.286830 0.437545 5.658330 -4.173600 1.200000
5.580540 0.461853 5.972680 -4.173600 5.570000
5.699300 0.565971 6.439530 -4.351200 6.990000
5.991180 0.405657 6.769320 -4.351200 6.570000
4.935750 1.452840 7.962050 -4.795200 3.110000
6.221630 0.424974 7.139840 -4.351200 2.490000
5.100590 1.458270 8.371340 -4.884000 4.310000
5.261900 1.426710 8.787810 -4.884000 3.650000
0.127751 1.845280 11.049700 -5.505600 1.620000
5.061280 1.279220 9.912780 -5.061600 2.320000
0.066334 1.916250 11.475200 -5.505600 5.830000
5.254530 1.355220 10.291300 -5.061600 3.640000
0.000000 1.987220 11.900400 -5.594400 5.120000
5.613000 1.405420 10.587200 -4.972800 4.310000
1.185620 2.058190 12.268300 -5.505600 1.050000
5.313830 1.609030 11.194900 -5.150400 4.160000
5.075390 1.545510 11.788100 -5.239200 6.050000
5.352170 1.278720 12.171800 -5.239200 5.700000
5.156250 1.404840 12.711000 -5.328000 4.900000
5.418250 1.448740 13.066900 -5.328000 7.420000
5.761660 1.537710 13.382000 -5.239200 5.590000
5.152510 1.582940 14.085400 -5.239200 3.380000
6.102550 1.580450 14.173800 -5.239200 4.040000
5.245610 1.673390 14.962400 -5.328000 4.240000
5.296710 1.768970 15.392500 -5.328000 6.660000
5.436100 1.815520 15.797600 -5.328000 3.140000
-11.277900 1.543810 12.942400 -4.173600 4.060000
5.240710 1.636810 16.792100 -5.328000 3.760000
-10.824800 0.643536 14.489300 -4.528800 12.240000
-11.082600 0.658859 14.834200 -4.528800 17.370000
-11.340300 0.674181 15.179200 -4.528800 17.740000
-11.596700 0.749431 15.522400 -4.528800 13.490000
-10.356700 2.552260 16.706700 -4.706400 4.190000
-10.573100 2.731920 17.055800 -4.706400 4.260000
-11.959200 1.579920 16.267700 -4.528800 4.020000
-12.213700 1.613540 16.613800 -4.528800 7.220000
-10.232900 2.086190 18.350500 -4.884000 8.370000
-12.468100 1.647150 16.959900 -4.528800 7.010000
-10.300200 2.062450 18.810600 -4.884000 11.340000
-10.616000 2.681080 21.503200 -4.972800 6.130000
-10.809200 2.653460 21.894700 -4.972800 7.870000
4.492310 2.248860 26.239200 -5.594400 16.360000
2.446380 2.285130 26.939500 -5.594400 16.630000
4.637230 2.321400 27.085600 -5.594400 17.160000
-19.802200 2.098630 19.696300 -3.907200 11.100000
2.400900 2.218610 28.250900 -5.594400 10.210000
-20.111400 2.043200 20.003900 -3.907200 17.250000
2.436830 2.318980 28.673700 -5.594400 9.240000
-18.359500 -2.252230 22.166400 -4.262400 18.360000
2.471920 2.534200 29.086600 -5.594400 7.310000
-18.642200 -2.105110 22.507700 -4.262400 15.110000
2.516980 0.712569 29.616800 -5.594400 9.710000
-17.599700 -1.057240 23.940200 -4.528800 15.690000
-18.916400 -2.136070 22.838700 -4.262400 7.460000
2.900840 0.629634 30.016600 -5.594400 7.970000
-16.079400 -1.072560 25.497300 -4.706400 11.270000
3.176850 0.638628 30.421800 -5.594400 8.750000
3.207500 2.969930 30.715300 -5.594400 14.050000
3.617460 2.453920 31.150500 -5.594400 13.460000
6.981720 2.757810 30.990400 -5.505600 11.030000
-19.242900 1.995680 25.347200 -4.351200 10.680000
6.918810 0.674607 31.561000 -5.505600 7.610000
2.504380 3.814710 32.428900 -5.594400 7.510000
19.600200 0.075961 26.235200 -4.617600 11.660000
2.554630 -0.282186 33.079600 -5.594400 10.430000
19.857800 0.179574 26.580100 -4.617600 11.360000
2.135660 -0.181906 33.541800 -5.594400 13.630000
20.115700 0.181906 26.925300 -4.617600 14.890000
2.163040 -0.184239 33.971800 -5.594400 12.480000
-21.286700 1.838190 27.052100 -4.351200 6.980000
9.731360 2.399880 33.432800 -5.416800 11.280000
-21.552800 1.861170 27.390300 -4.351200 8.010000
-21.818900 1.884150 27.728400 -4.440000 7.580000
-21.550700 1.884150 27.937300 -4.351200 6.000000
9.252090 1.907120 34.494600 -5.505600 6.000000
-19.491100 2.569470 29.876500 -4.617600 7.780000
-10.294200 2.377080 34.619400 -5.328000 7.200000
-19.721500 2.712070 30.229600 -4.617600 6.120000
-10.686400 2.405370 34.950200 -5.328000 13.290000
-19.956300 2.744360 30.589500 -4.617600 8.430000
-10.812100 2.433670 35.361400 -5.328000 13.320000
-18.738700 2.776650 31.849700 -4.795200 7.850000
-21.368400 2.776650 30.148500 -4.528800 11.300000
11.625100 2.461970 35.555200 -5.416800 9.960000
-18.707700 2.808930 32.365200 -4.795200 6.770000
11.761000 2.373240 35.971000 -5.416800 10.190000
22.378900 -2.575170 32.095600 -4.706400 5.960000
22.624800 -2.603460 32.448300 -4.706400 10.370000
23.118000 -2.755420 32.617000 -4.706400 12.720000
22.083700 -2.660060 33.850500 -4.795200 11.880000
25.542100 -1.582130 31.950200 -4.795200 11.470000
23.649400 -1.215210 33.917700 -4.706400 8.820000
25.247200 -1.598790 32.729200 -4.528800 9.880000
25.521900 -1.001730 33.085400 -4.528800 5.730000
25.528400 -0.881487 33.626600 -4.617600 6.050000
21.883700 2.274760 36.547600 -4.972800 7.550000
22.101000 2.430800 36.910500 -4.972800 6.250000
22.322000 2.455110 37.279600 -4.972800 7.730000
8.916370 -0.926461 43.468000 -5.505600 7.510000
9.002310 -1.074020 43.886900 -5.505600 8.810000
9.173230 1.482980 44.720200 -5.505600 7.330000
-13.386800 -0.108944 45.019800 -5.328000 8.460000
-13.246600 -0.256535 45.509600 -5.328000 11.760000
-5.956200 2.757290 51.289700 -7.104000 6.590000
-6.355620 1.998480 51.277000 -6.660000 6.390000
-2.984730 2.158270 51.576600 -6.393600 5.960000
-6.005830 2.780260 51.717200 -7.104000 7.660000
-3.009600 2.176260 52.006500 -6.393600 8.590000
-6.055470 2.803240 52.144600 -7.104000 11.410000
-6.457180 2.803240 52.096400 -6.748800 7.580000
-6.510110 2.826220 52.523400 -6.837600 12.010000
-12.696800 1.202990 66.438200 -5.505600 6.030000
-12.391000 1.210650 66.934200 -5.505600 8.530000
-12.469400 1.218320 67.357800 -5.505600 9.600000
-12.549000 0.799575 67.787600 -5.505600 8.320000
-3.144850 4.010830 70.915600 -5.150400 16.280000
-3.164450 3.814250 71.357500 -5.150400 15.360000
-3.182970 4.059440 71.775200 -5.150400 12.460000
6.621990 2.151930 72.921300 -5.416800 6.220000
6.236830 2.164590 73.387600 -5.416800 5.620000
-25.833600 2.443070 79.011800 -5.239200 6.530000
-25.973000 1.744980 79.438100 -5.239200 5.260000
-26.106900 1.753980 79.847600 -5.239200 5.570000
43.162800 0.974482 72.085400 -4.972800 7.300000
40.768600 0.721957 74.453000 -4.972800 5.220000
40.974300 0.989474 74.828600 -4.972800 5.520000
41.384400 1.532470 75.577600 -4.972800 11.020000
42.173000 1.807950 75.628200 -4.972800 12.670000
-33.301500 4.170940 80.311200 -5.150400 9.960000
42.967300 1.816940 75.675500 -4.972800 5.300000
-33.475600 3.651080 80.731200 -5.150400 6.470000
-33.648600 3.125750 81.148300 -5.150400 7.770000
48.028300 0.747610 73.619100 -4.795200 7.040000
50.521200 0.751275 72.457100 -4.706400 6.790000
43.230800 0.480420 77.525200 -4.972800 6.750000
50.205000 0.754940 73.199600 -4.706400 9.350000
42.839000 0.482752 78.234100 -4.972800 6.770000
50.448700 0.758604 73.555000 -4.706400 7.590000
42.589900 0.762269 78.857800 -5.061600 8.550000
42.794700 0.765934 79.236900 -5.061600 5.850000
42.998100 1.049440 79.613600 -5.061600 4.570000
42.585000 1.054440 80.323300 -5.061600 8.230000
42.786800 1.059440 80.704000 -5.061600 6.660000
28.018100 0.212891 87.400300 -5.416800 5.580000
28.149700 0.213891 87.810700 -5.416800 8.430000
27.600400 0.214890 88.436400 -5.416800 9.010000
29.605600 0.215890 88.240100 -5.416800 6.390000
20.022800 0.000000 91.336300 -5.505600 5.500000
38.946800 1.662730 84.991900 -5.150400 7.750000
20.639200 -2.251300 91.613100 -5.505600 6.250000
21.439500 -2.772190 91.857600 -5.505600 10.580000
35.460400 2.480450 87.416000 -5.239200 9.390000
35.630800 1.392570 87.836000 -5.239200 7.180000
-15.468900 2.077790 98.306600 -5.505600 5.960000
-15.533900 2.627690 98.719600 -5.505600 6.510000
37.480300 1.569810 100.062000 -5.328000 9.460000
-23.250700 1.259330 106.061000 -5.416800 12.830000
-23.343700 0.927183 106.485000 -5.416800 14.140000
-22.609700 1.607790 107.076000 -5.416800 12.920000
26.415400 -0.254870 106.657000 -5.505600 9.680000
26.519000 -0.255869 107.075000 -5.505600 8.510000
31.686100 -0.257868 106.561000 -5.416800 9.250000
27.034100 1.652100 109.155000 -5.505600 8.250000
27.136300 2.007540 109.568000 -5.505600 8.300000
27.873600 2.365620 109.820000 -5.505600 8.580000
26.488300 2.726350 110.597000 -5.505600 11.500000
26.588700 2.736680 111.016000 -5.505600 15.560000
-51.903300 3.354480 101.655000 -4.884000 15.960000
26.889700 2.767660 112.273000 -5.505600 10.830000
-52.490900 3.392450 102.806000 -4.884000 9.680000
26.994900 1.702740 112.712000 -5.505600 14.660000
-56.428400 3.405110 101.192000 -4.795200 6.700000
27.093800 2.068840 113.125000 -5.505600 17.340000
26.537400 2.076500 113.700000 -5.505600 12.730000
-46.979400 3.791400 106.840000 -5.061600 13.520000
25.755000 2.084160 114.321000 -5.505600 14.270000
-46.320000 4.167660 107.583000 -5.061600 8.020000
26.728200 3.092070 114.517000 -5.505600 16.790000
-47.321100 4.182990 107.617000 -5.061600 15.510000
26.827700 2.829620 114.943000 -5.505600 9.600000
26.040300 1.740720 115.588000 -5.505600 15.630000
24.568000 1.747050 116.350000 -5.505600 17.390000
-61.057400 4.228950 101.971000 -4.706400 7.520000
28.691400 1.753380 115.846000 -5.505600 15.500000
-44.851800 3.137370 110.567000 -5.150400 9.330000
-61.278600 4.244280 102.340000 -4.706400 9.300000
25.647200 2.130140 116.993000 -5.505600 6.000000
-44.371500 3.148700 111.225000 -5.150400 11.290000
25.740800 1.766040 117.420000 -5.505600 7.590000
-44.527300 3.531690 111.615000 -5.150400 6.730000
25.833100 1.772370 117.841000 -5.505600 7.560000
25.925300 1.778700 118.261000 -5.505600 15.370000
-46.362600 3.182680 111.810000 -5.061600 11.220000
-64.565700 3.182680 102.383000 -4.706400 13.970000
-45.009900 3.194010 112.825000 -5.150400 12.330000
-64.013600 2.160790 103.263000 -4.706400 10.140000
-45.172200 2.922560 113.232000 -5.150400 9.260000
-63.440000 2.168450 104.121000 -4.706400 8.750000
-45.331800 2.932890 113.632000 -5.150400 9.870000
-63.660400 2.554510 104.483000 -4.706400 6.230000
-45.491400 2.943220 114.032000 -5.150400 12.160000
-63.884500 2.563510 104.851000 -4.706400 7.860000
-64.104200 2.953550 105.211000 -4.706400 12.830000
-44.917700 3.632960 115.165000 -5.150400 14.760000
-45.963600 3.645620 115.216000 -5.150400 17.060000
-46.123200 3.658280 115.616000 -5.150400 13.580000
-45.393800 2.994850 116.386000 -5.239200 15.320000
-45.550400 3.005180 116.787000 -5.150400 9.550000
-45.706900 3.015510 117.189000 -5.150400 10.040000
-45.860700 3.318590 117.583000 -5.150400 6.930000
-46.017300 3.329920 117.984000 -5.150400 11.160000
-46.341300 1.873640 118.815000 -5.150400 6.730000
-46.497900 1.879970 119.217000 -5.150400 7.560000
4.962110 3.386550 128.699000 -5.594400 10.340000
-46.101500 3.784860 120.249000 -5.150400 14.170000
-78.651700 4.183130 101.960000 -4.351200 14.240000
4.978710 3.397880 129.129000 -5.594400 9.400000
-46.255700 3.797520 120.651000 -5.239200 4.860000
-78.914800 4.197120 102.301000 -4.351200 5.450000
4.994870 3.810180 129.549000 -5.594400 7.150000
-46.400600 4.612010 121.029000 -5.239200 9.960000
5.011470 3.822840 129.979000 -5.594400 6.200000
5.667290 1.373440 5.746660 -4.173600 2.160000
5.019580 0.725437 6.967600 -4.528800 1.770000
5.851810 0.866230 6.847520 -4.351200 2.640000
6.212550 0.866230 6.522000 -4.173600 2.640000
5.176960 1.474570 7.803290 -4.706400 1.670000
6.075000 0.907479 7.220630 -4.351200 1.260000
5.033580 1.488580 8.406500 -4.884000 2.540000
5.324780 1.490030 8.739290 -4.884000 3.240000
5.078560 1.354050 9.403270 -5.061600 1.890000
5.621590 1.486150 9.068400 -4.795200 1.560000
0.127548 1.947720 11.032100 -5.505600 2.100000
5.281700 1.408210 9.779400 -5.061600 2.160000
5.918970 1.545600 9.385790 -4.795200 2.280000
0.220747 2.022630 11.455000 -5.505600 5.940000
0.228923 2.097550 11.879300 -5.505600 5.280000
5.015480 1.356800 11.836900 -5.150400 5.160000
5.716310 0.725316 12.999900 -5.239200 5.010000
6.123630 1.976280 13.161900 -5.239200 5.040000
5.140030 1.895670 14.051300 -5.328000 5.490000
5.294300 1.771220 14.473000 -5.328000 6.080000
5.245610 1.673390 14.962400 -5.328000 4.150000
5.037750 2.309100 15.407900 -5.328000 4.090000
-10.462000 2.007910 12.435000 -4.173600 5.390000
5.328550 1.756050 16.297300 -5.328000 8.250000
5.461760 1.799950 16.704800 -5.328000 7.970000
-10.936200 0.643536 14.405400 -4.440000 9.100000
-11.195300 0.716123 14.746700 -4.440000 14.880000
5.871150 1.595960 17.956900 -5.328000 4.410000
-11.455700 0.732777 15.089600 -4.440000 15.550000
-11.716000 0.749431 15.432600 -4.440000 11.660000
-12.344300 1.549760 16.523100 -4.440000 7.290000
-10.232900 2.086190 18.350500 -4.795200 10.280000
-10.444900 2.062450 18.730700 -4.795200 13.460000
-10.650600 2.171340 19.099500 -4.795200 11.800000
-10.292100 2.213920 19.779700 -4.884000 8.190000
-10.643700 2.577930 21.984600 -4.884000 6.290000
2.295550 1.434170 25.278600 -5.594400 16.400000
4.844470 1.538310 25.349400 -5.505600 16.750000
3.578370 1.563950 25.993200 -5.505600 14.790000
2.334590 0.660933 27.470700 -5.594400 13.710000
2.155960 0.671260 27.917300 -5.594400 12.900000
2.397880 2.634870 28.215400 -5.594400 18.210000
2.434900 2.585880 28.651000 -5.594400 18.280000
2.248110 2.466490 29.110500 -5.594400 14.250000
2.281170 2.502760 29.538600 -5.594400 15.650000
2.547010 2.260060 29.970200 -5.594400 12.720000
-16.849000 -1.445380 24.976600 -4.528800 10.970000
3.343950 2.292350 30.324100 -5.505600 10.030000
2.971540 2.874410 30.748100 -5.594400 7.630000
7.529560 2.914330 30.401900 -5.505600 6.250000
6.561310 2.856040 31.073300 -5.505600 5.750000
-19.425600 2.290860 25.182400 -4.262400 7.420000
2.292810 2.894640 32.105800 -5.594400 9.010000
7.079730 2.595880 31.425500 -5.416800 8.760000
-19.688100 2.321810 25.522700 -4.351200 8.300000
2.332760 0.000000 32.665200 -5.594400 11.920000
19.599500 0.278521 26.234300 -4.617600 9.050000
-20.203200 2.251740 25.675200 -4.262400 7.610000
2.363460 0.000000 33.095000 -5.594400 14.050000
19.857400 0.282186 26.579500 -4.617600 13.040000
-20.669000 2.281370 25.854500 -4.262400 7.720000
2.394150 0.000000 33.524800 -5.594400 15.130000
20.115300 0.285851 26.924700 -4.617600 12.670000
-20.937400 2.311000 26.190300 -4.262400 5.810000
2.424840 0.000000 33.954600 -5.594400 12.710000
20.372500 0.394790 27.269000 -4.617600 8.770000
-21.009300 2.130520 26.699600 -4.351200 4.830000
2.455370 0.399787 34.382100 -5.594400 4.880000
-21.275200 2.157490 27.037500 -4.351200 8.750000
-21.536900 2.292180 27.370100 -4.351200 9.430000
9.125740 2.756460 34.023500 -5.416800 7.090000
-21.530300 2.429510 27.910900 -4.262400 5.710000
6.692950 2.790070 35.021900 -5.505600 6.520000
-19.711700 2.790070 29.711600 -4.617600 5.840000
5.342030 2.041870 35.740900 -5.505600 5.070000
10.766300 2.041870 34.497000 -5.328000 6.240000
-19.713200 2.907380 30.216900 -4.617600 11.900000
9.948930 2.066180 35.188800 -5.416800 8.730000
-10.878600 2.857300 34.856800 -5.239200 8.890000
-19.951500 2.857300 30.582200 -4.617600 12.500000
10.341800 1.976060 35.530200 -5.416800 9.520000
-19.951900 2.776650 31.104100 -4.528800 9.750000
10.177200 2.461970 35.996300 -5.416800 7.690000
-21.851300 2.808930 30.331500 -4.440000 6.670000
21.883700 2.274760 36.547600 -4.884000 8.020000
22.101000 2.430800 36.910500 -4.884000 7.180000
22.318000 2.589480 37.272900 -4.884000 9.210000
8.915750 -1.063690 43.465000 -5.505600 7.750000
9.001780 -1.177930 43.884400 -5.505600 16.010000
8.739560 2.168060 44.339400 -5.505600 18.380000
-27.942200 2.307820 35.510200 -4.262400 16.140000
8.821440 2.329800 44.754800 -5.505600 5.140000
-12.857700 3.027940 44.173500 -5.239200 8.290000
-13.003100 0.971435 44.673100 -5.239200 7.940000
-12.777500 0.544710 45.193400 -5.328000 9.330000
-13.246600 0.256535 45.509600 -5.328000 10.300000
-13.366700 0.406788 45.922400 -5.328000 13.190000
-2.684120 3.076610 51.546600 -6.304800 5.790000
-5.405650 3.102250 51.765000 -6.660000 6.180000
-2.305810 3.102250 51.995400 -6.304800 11.830000
-5.449300 3.290170 52.183000 -6.660000 11.090000
-2.324870 3.127890 52.425100 -6.304800 13.380000
-5.493960 3.317140 52.610700 -6.660000 12.190000
-2.343920 3.153530 52.854900 -6.304800 10.910000
-4.106030 3.344110 53.168500 -5.328000 10.350000
-4.136560 3.869690 53.563800 -5.328000 9.240000
10.274800 1.331230 62.926000 -5.505600 8.570000
10.344200 1.340220 63.351200 -5.505600 5.930000
-11.047900 1.924080 64.529600 -5.416800 6.350000
-11.495800 1.936730 64.888800 -5.416800 5.370000
-12.532800 1.755570 65.579600 -5.505600 9.840000
-12.994900 1.766900 65.928700 -5.416800 7.110000
-12.696100 1.412180 66.434300 -5.416800 6.670000
-12.777000 1.421170 66.857400 -5.416800 12.100000
-12.469400 1.218320 67.357800 -5.416800 12.870000
-12.549000 0.799575 67.787600 -5.416800 10.790000
6.582410 2.364380 72.485400 -5.328000 4.940000
-26.307000 2.174640 78.408700 -5.239200 5.190000
43.035000 1.982800 70.631200 -4.884000 5.740000
-26.444000 2.185970 78.817100 -5.239200 4.760000
-26.584500 1.744980 79.235600 -5.239200 6.480000
-26.723100 1.494160 79.648800 -5.239200 6.290000
38.017500 0.000000 75.898100 -5.061600 11.780000
40.730900 2.519020 75.415900 -4.972800 13.250000
40.941500 2.065420 75.805800 -4.972800 10.320000
41.585900 2.075740 75.945700 -4.972800 7.360000
42.379800 2.086070 75.999200 -4.972800 6.290000
43.174500 2.299230 76.040400 -4.884000 10.160000
42.836700 1.034450 78.229900 -4.972800 4.090000
42.588600 1.039450 78.855400 -4.972800 6.000000
42.793300 1.044440 79.234500 -4.972800 9.240000
42.998100 1.049440 79.613600 -4.972800 9.290000
42.154300 2.189340 81.013500 -5.061600 6.200000
26.835000 1.064430 87.764600 -5.416800 6.720000
27.470300 1.069430 88.019300 -5.416800 9.170000
27.599500 0.787923 88.433400 -5.416800 6.900000
42.119200 1.933870 82.492700 -5.061600 6.740000
28.924600 0.215890 88.465600 -5.328000 7.380000
29.058500 0.216889 88.875200 -5.328000 10.320000
17.632800 0.217889 92.266200 -5.416800 6.330000
5.440240 4.370500 104.476000 -5.594400 5.280000
5.461900 4.713350 104.892000 -5.594400 7.250000
-22.430500 1.930910 106.227000 -5.416800 10.150000
-22.607200 2.284670 107.064000 -5.416800 9.810000
25.693000 0.000000 107.277000 -5.416800 12.040000
26.622700 0.000000 107.494000 -5.416800 13.320000
33.120100 0.601691 106.122000 -5.416800 11.380000
26.190700 1.999880 109.354000 -5.505600 8.690000
26.289500 2.356630 109.767000 -5.505600 9.350000
27.236400 2.716020 109.972000 -5.505600 9.320000
26.479200 4.045090 110.559000 -5.416800 12.960000
26.338100 2.777990 112.846000 -5.505600 14.180000
-48.869800 3.763420 105.039000 -4.972800 8.010000
-56.428400 3.405110 101.192000 -4.795200 8.140000
26.437900 2.428590 113.273000 -5.416800 10.110000
-46.806000 3.777410 106.445000 -5.061600 14.430000
-57.419300 3.417770 101.129000 -4.795200 8.240000
26.538700 1.715400 113.705000 -5.505600 13.530000
-58.412600 3.430430 101.056000 -4.795200 9.600000
24.296600 2.819290 115.065000 -5.505600 8.020000
25.276700 2.464570 115.303000 -5.505600 8.990000
-45.978500 1.823010 115.253000 -5.150400 10.990000
-45.245400 1.829340 116.005000 -5.150400 8.850000
-44.728300 1.835670 116.667000 -5.150400 10.130000
-45.539400 4.071210 116.759000 -5.150400 6.270000
-45.695900 4.085200 117.160000 -5.150400 6.910000
-45.852400 4.099190 117.562000 -5.150400 9.550000
-46.008900 4.113180 117.963000 -5.150400 6.100000
4.961210 4.183130 128.676000 -5.594400 10.150000
-79.612800 4.979560 101.176000 -4.262400 7.420000
4.977800 4.197120 129.106000 -5.594400 9.240000
-46.246400 4.596690 120.627000 -5.150400 14.130000
-79.879100 4.996210 101.514000 -4.262400 14.200000
4.994400 4.211110 129.536000 -5.594400 8.980000
-45.466400 4.612010 121.383000 -5.150400 6.820000
-79.160400 5.012860 102.620000 -4.262400 8.290000
5.013290 1.509200 130.026000 -5.594400 11.660000
-45.612200 5.029520 121.772000 -5.150400 13.450000
-45.768500 4.642660 122.190000 -5.150400 9.460000
-46.863000 4.657980 122.235000 -5.150400 12.020000
-42.740800 4.267080 124.207000 -5.150400 11.320000
-56.326300 4.267080 118.666000 -4.972800 5.780000
-46.234900 3.465840 123.435000 -5.150400 9.020000
-56.516400 3.873470 119.066000 -4.972800 8.950000
-46.382000 3.886130 123.828000 -5.150400 11.550000
-46.528600 4.309050 124.219000 -5.150400 11.210000
-45.717800 4.323040 124.978000 -5.150400 7.310000
-45.876800 3.201400 125.413000 -5.150400 8.410000
-31.202200 3.522470 130.279000 -5.416800 9.430000
-46.024800 3.211720 125.818000 -5.150400 10.610000
-47.122500 5.196060 125.805000 -5.150400 13.990000
-46.304700 4.795880 126.583000 -5.150400 10.880000
-46.452700 4.811200 126.987000 -5.150400 6.910000
-47.581100 4.826520 127.029000 -5.150400 5.940000
5.537590 0.367023 6.019050 -4.351200 1.220000
5.197540 0.619150 6.846320 -4.617600 3.290000
5.829050 0.386340 6.335840 -4.351200 4.180000
5.457420 0.650108 7.188640 -4.617600 3.230000
6.198730 1.054060 6.507480 -4.262400 4.060000
6.546250 1.104260 6.767110 -4.262400 1.870000
4.875930 1.813460 8.435560 -4.972800 1.520000
5.004880 2.049290 8.814770 -4.972800 3.430000
5.196370 1.486150 9.318570 -4.972800 2.680000
5.124080 1.511270 9.847640 -5.061600 1.090000
5.404270 1.498060 10.193500 -5.061600 2.430000
5.755280 1.405420 10.510500 -5.061600 3.800000
5.081270 1.493990 11.318200 -5.239200 4.510000
5.958640 1.493990 10.881900 -5.061600 3.190000
5.485370 1.862540 11.556300 -5.239200 3.280000
5.065370 1.883740 12.215900 -5.239200 6.680000
5.170950 0.948101 12.747300 -5.328000 6.840000
5.707670 1.065460 12.980300 -5.239200 5.690000
6.047440 1.976280 13.197100 -5.239200 5.720000
5.360100 1.803090 13.981100 -5.328000 4.330000
4.897030 1.902230 14.595700 -5.328000 4.320000
5.146540 2.003990 14.956100 -5.416800 5.070000
5.370020 2.158600 15.317200 -5.416800 3.170000
4.868870 2.266910 15.923800 -5.416800 2.400000
4.895160 1.450870 16.462400 -5.416800 4.330000
5.818140 1.691210 16.595400 -5.416800 4.850000
-10.819300 0.867226 14.481800 -4.440000 7.910000
-11.079900 0.773381 14.830700 -4.440000 13.690000
-11.454200 0.791367 15.087800 -4.440000 14.830000
-11.716000 0.749431 15.432600 -4.440000 11.530000
-12.211400 1.661360 16.610700 -4.440000 5.390000
-10.370800 2.151160 18.265400 -4.795200 8.130000
-10.571900 2.393830 18.619600 -4.795200 10.110000
0.413946 1.614330 21.480400 -0.532800 6.740000
-10.783400 2.441700 18.992000 -4.795200 5.390000
-0.253157 1.849860 21.896400 -0.532800 6.870000
10.158100 1.748000 19.895300 0.177600 8.630000
-1.160820 1.937920 22.292600 -0.532800 13.130000
10.358300 1.640750 20.287300 0.177600 6.430000
-0.131545 1.922410 22.756300 -0.532800 17.450000
10.553700 1.671710 20.670100 0.177600 10.930000
0.000000 1.958680 23.186000 -0.532800 17.910000
10.753800 1.556420 21.061800 0.177600 10.850000
0.000000 2.633210 23.552800 -0.532800 15.680000
-10.626500 2.458470 21.524600 -4.972800 7.030000
0.277240 2.681080 23.979400 -0.532800 11.530000
2.351070 2.426800 24.327800 -5.683200 5.090000
-10.942800 2.502370 21.846100 -4.972800 11.270000
0.282091 2.804440 24.399000 -0.532800 7.440000
2.582230 2.546270 24.727700 -5.683200 7.480000
2.626750 2.590180 25.154000 -5.683200 11.070000
2.671270 2.634080 25.580400 -5.683200 18.250000
2.717460 2.516190 26.022700 -5.683200 21.860000
2.253810 2.310600 26.520100 -5.683200 21.130000
2.445890 2.347870 26.934200 -5.594400 15.160000
-19.538800 -2.347870 18.699400 7.636800 6.990000
3.531870 2.809680 27.205800 -5.594400 14.500000
-19.852900 -2.321400 19.000000 7.636800 6.890000
3.587060 2.853580 27.630900 -5.594400 13.900000
2.724680 2.547280 28.193700 -5.594400 12.500000
2.434210 2.674790 28.642900 -5.683200 13.450000
2.255340 0.770186 29.204100 -5.683200 7.080000
2.288510 0.781512 29.633600 -5.683200 16.690000
2.553310 0.792838 30.044300 -5.683200 6.050000
3.176440 0.804164 30.417900 -5.594400 16.110000
2.376400 3.160890 30.771700 -5.683200 13.030000
-16.691600 2.611570 26.021300 -4.617600 10.330000
2.829980 3.204790 31.163800 -5.594400 9.810000
-16.923400 2.647850 26.382700 -4.706400 10.030000
2.270880 0.665613 31.798700 -5.683200 6.970000
2.477660 2.994170 32.083000 -5.594400 10.190000
6.984400 2.933230 31.860200 -5.594400 9.420000
19.595900 0.683602 26.229500 -4.706400 11.110000
2.363420 -0.179574 33.094500 -5.683200 9.580000
19.853800 0.692597 26.574700 -4.706400 9.030000
-20.849500 2.665100 25.672200 -4.262400 14.330000
2.394140 -0.077960 33.524700 -5.683200 12.780000
2.424840 -0.078960 33.954500 -5.683200 5.550000
11.050200 2.340630 32.112500 -5.416800 16.770000
2.654250 -0.079959 34.369600 -5.594400 14.530000
11.190100 2.370250 32.519000 -5.416800 12.080000
-21.266600 2.370250 27.026500 -4.351200 6.970000
-21.532400 2.399880 27.364400 -4.351200 10.300000
-21.798200 2.429510 27.702200 -4.351200 11.810000
9.969470 2.569470 34.250900 -5.505600 7.560000
9.348320 2.823690 34.853400 -5.505600 9.010000
-17.571400 -2.907380 31.510500 -4.884000 6.240000
9.457870 2.941990 35.261800 -5.505600 9.480000
-17.780600 -2.941990 31.885700 -4.884000 6.310000
-20.225100 1.755100 30.485500 -4.617600 9.930000
12.956600 2.976610 34.590700 -5.416800 8.800000
-18.276000 1.775750 32.188300 -4.795200 6.520000
-18.738900 1.796400 32.419100 -4.706400 8.410000
2.209380 2.873510 38.178400 -5.772000 5.810000
2.234200 2.905790 38.607400 -5.772000 6.550000
-1.733450 2.575170 39.088800 -6.571200 7.130000
2.259030 2.938080 39.036400 -5.772000 6.990000
-1.752500 2.603460 39.518400 -6.482400 8.100000
-3.382460 3.218890 39.800700 -6.837600 12.900000
21.593800 2.538210 36.702400 -4.972800 8.820000
21.811900 2.563840 37.073100 -4.972800 6.370000
8.829800 -0.917466 43.045900 -5.594400 7.340000
8.916370 -0.926461 43.468000 -5.594400 8.000000
9.003470 -0.796885 43.892600 -5.594400 8.380000
9.087560 1.329130 44.302500 -5.594400 16.360000
9.174110 1.341790 44.724500 -5.594400 16.400000
-11.318200 3.027940 44.592800 -5.416800 7.390000
-13.235400 3.056240 44.510600 -5.328000 9.810000
-13.126200 0.254203 45.095900 -5.416800 7.580000
-13.509400 0.256535 45.432300 -5.416800 10.590000
-13.628500 1.146310 45.832800 -5.416800 13.410000
20.087200 2.014390 43.835500 -5.239200 13.930000
18.974700 2.333250 44.781700 -5.328000 11.130000
17.210900 2.353900 45.948600 -5.416800 6.860000
-11.058500 3.155330 49.086200 -6.571200 4.730000
-11.155100 3.025340 49.515100 -6.571200 5.250000
-11.249600 3.050980 49.934700 -6.571200 8.590000
-1.989000 2.916960 51.587300 -6.127200 8.730000
-4.706090 3.263200 51.823400 -7.015200 5.700000
-5.007420 2.941270 51.814500 -6.748800 8.100000
-2.305810 3.102250 51.995400 -6.393600 7.740000
-5.044890 3.614640 52.202200 -6.748800 10.640000
-1.617570 3.127890 52.451700 -6.216000 12.880000
-5.086240 3.644260 52.630100 -6.748800 13.290000
-5.127590 3.673890 53.058000 -6.748800 10.470000
-25.733900 3.900650 47.647900 -5.328000 9.950000
-12.610000 2.390280 65.983800 -5.505600 7.550000
-13.079000 1.621350 66.355200 -5.505600 6.120000
-12.776100 1.631680 66.852800 -5.505600 6.680000
-12.463500 2.436250 67.325900 -5.505600 7.980000
-12.549000 0.799575 67.787600 -5.505600 7.520000
-12.626300 1.233640 68.205100 -5.505600 9.620000
-26.444000 2.185970 78.817100 -5.328000 7.170000
-26.581100 2.197290 79.225500 -5.328000 9.200000
-26.103500 2.208620 79.837400 -5.328000 10.700000
43.470300 2.055090 73.885200 -4.972800 6.690000
41.381900 1.798950 75.573100 -5.061600 7.080000
41.585900 2.075740 75.945700 -5.061600 8.040000
42.964300 2.086070 75.670300 -5.061600 10.760000
49.718600 0.475755 72.490500 -4.795200 8.950000
41.950600 3.141070 77.674100 -5.061600 7.240000
49.957700 1.297630 72.839100 -4.795200 5.060000
50.195800 1.852920 73.186300 -4.795200 4.520000
50.436000 2.137710 73.536500 -4.795200 7.730000
43.037200 1.870910 78.596000 -5.061600 4.830000
42.789400 1.601430 79.227300 -5.061600 6.520000
42.996300 1.329280 79.610400 -5.061600 7.980000
42.578600 1.897900 80.311200 -5.150400 9.500000
42.780400 1.906890 80.691800 -5.150400 7.130000
42.979200 2.199670 81.066800 -5.150400 5.540000
27.471100 0.784258 88.022100 -5.416800 7.340000
28.280200 0.787923 88.218100 -5.416800 4.830000
28.923600 0.791587 88.462700 -5.416800 8.540000
29.058200 0.506073 88.874100 -5.416800 5.610000
